# .PCD v0.7 - Point Cloud Data file format
VERSION 0.7
FIELDS x y z
SIZE 4 4 4
TYPE F F F
COUNT 1 1 1
WIDTH 1552
HEIGHT 1
VIEWPOINT 0 0 0 1 0 0 0
POINTS 1552
DATA ascii
-7.3906012 3.1145344 25.300844
-6.1592846 3.0954268 25.415308
-5.7168498 3.0405836 25.432026
-5.3333106 3.0183632 25.264746
-5.0236902 3.0296295 25.331924
-4.4811797 3.0070577 25.558186
-3.354764 2.9566641 25.500015
-1.7145489 3.1491318 25.567888
-11.333817 3.5353651 25.352703
-10.320704 3.4039428 25.309227
-7.2193494 3.3121729 25.516712
-6.8530812 3.2179897 25.484074
-5.8762636 3.5762689 25.289513
-5.4341421 3.355659 25.433079
-3.4476087 3.4299867 25.4109
-2.9617951 3.3180614 25.372791
4.8316193 3.3765996 25.506239
6.1290212 3.3296614 25.327892
-19.219078 3.9883244 25.293056
-18.341413 3.6194539 25.361572
-12.401998 3.7056589 25.447918
-5.7461824 3.6327298 25.374968
-2.9854729 3.7735872 25.343155
-2.7237785 3.9242709 25.52182
-1.3628302 3.8891926 25.310194
3.9819422 3.7589097 25.288746
4.2812042 3.7935083 25.378458
4.5554352 3.7257037 25.403107
4.9068303 3.8172233 25.309626
2.3890457 4.3167086 25.597729
4.1617689 4.23037 25.347656
4.7150869 4.249855 25.321541
4.9872046 4.1503115 25.313885
-1.1150913 4.4209557 25.557177
4.3441191 4.6118374 25.354197
4.6834898 4.7041006 25.391563
4.9990692 4.5514426 25.404541
5.3464718 4.6096473 25.434315
5.9810953 4.6958733 25.584881
-5.6114092 5.1501164 25.23177
4.5812278 4.9859996 25.51823
-19.288948 5.3652153 25.380859
-18.828991 5.3293352 25.478085
-17.915947 5.2558651 25.546394
4.4930992 5.5207071 25.553713
5.0726576 5.4695139 25.462767
-19.050678 5.7255125 25.302094
-5.771328 5.608748 25.427145
0.043074377 5.8249092 25.210203
2.2771776 5.9292865 25.563784
2.9313135 5.9639187 25.421093
3.3019819 5.91713 25.418137
3.7659953 5.818912 25.383982
4.201767 5.8620882 25.470133
-11.596433 6.1687183 25.343014
0.89313293 6.0698595 25.516129
1.2314796 6.0154061 25.20887
2.4876511 6.2285414 25.453979
3.4434838 6.076488 25.39249
3.8318555 6.1296234 25.382391
-18.632326 6.4888816 25.461861
0.73360062 6.7957773 25.284214
2.7840827 6.6632228 25.415632
-0.32246113 7.1046576 25.325499
0.12206104 7.0519562 25.361734
0.43733692 7.082531 25.377705
1.0704976 6.9908185 25.330553
1.4875129 6.9535913 25.377035
1.7714863 7.0261879 25.332102
0.18077362 7.3497887 25.534777
0.66328126 7.3477845 25.549082
0.84144729 7.4491501 25.558653
1.977182 7.2423143 25.437124
26.014435 -5.063345 25.975863
26.472404 -5.0589395 25.946468
27.154461 -5.0655079 25.6819
27.448645 -4.9959874 25.653696
27.77228 -5.1186547 25.620773
19.35186 -4.4680309 25.82276
23.490761 -4.6612706 25.796595
24.252596 -4.6927857 25.814789
26.941351 -4.7514186 25.84145
27.257801 -4.7586975 25.736813
-3.746628 -4.0165825 25.722708
0.79853165 -4.0463171 25.8661
1.4672942 -4.1177468 25.722456
4.1189861 -4.1120129 25.619469
19.049482 -4.2002325 25.816437
19.518204 -4.128974 25.698685
19.733591 -4.1419158 25.688387
20.154755 -4.172204 25.777878
20.500139 -4.1875029 25.842634
23.466257 -4.0650859 25.900753
24.29528 -4.3779368 25.761734
24.515581 -4.1503301 25.816843
24.991268 -4.3067026 25.681664
-7.3155565 -3.9813516 25.653103
0.60329491 -3.7388928 25.890015
1.0320029 -3.8130879 25.773869
1.3402189 -3.7420132 25.75106
1.7791097 -3.923996 25.615746
2.0503078 -3.7558119 25.621712
4.3788571 -3.8291385 25.927422
4.4954052 -3.7836146 25.834934
18.911322 -3.7235417 25.762993
19.502575 -3.75701 25.672161
19.833649 -3.6476922 25.977427
20.270576 -3.9884071 25.75997
20.677702 -3.946516 25.704437
23.829706 -3.7189932 25.840046
24.057976 -3.6728375 25.805998
40.401211 -3.7202852 25.8958
56.876583 -3.8361461 25.650589
60.908649 -3.791055 25.698387
-26.807993 -3.4683471 25.95686
0.65246981 -3.4985592 25.755798
1.0453688 -3.4538753 25.800243
1.4152857 -3.401504 25.720436
1.7829363 -3.3702192 25.834949
4.2031116 -3.4755917 25.78657
19.572523 -3.4967771 25.865625
19.806923 -3.3675156 25.863369
20.155186 -3.4092402 25.940311
23.994926 -3.4882398 25.773829
24.473083 -3.3734589 25.903633
25.092884 -3.4914324 25.94622
25.426502 -3.343205 25.666842
23.994783 -2.9408889 25.636631
39.498398 -2.8581939 25.870598
39.378925 -2.495965 25.768927
39.806362 -2.5270157 25.94483
40.093464 -2.6419041 25.796801
24.81044 -2.3451278 25.811687
25.675943 -2.3046851 25.648554
39.102108 -2.1646769 25.999601
39.491333 -2.168818 25.887432
39.828953 -2.1204605 25.726265
40.117802 -2.2736564 25.723721
25.648623 -1.9590049 25.638252
39.485394 -1.9286598 25.863049
39.772003 -1.7349542 25.77153
40.535614 -1.6665349 25.834007
-38.447384 -1.3294774 25.800674
39.593864 -1.5345771 25.791637
39.739063 -1.4591169 25.830294
40.196827 -1.3710465 25.677345
40.435486 -1.3484038 25.635052
39.665287 -0.91680539 25.920841
40.236008 -1.0136242 25.733631
40.471252 -0.84917158 25.680605
-14.72711 -0.41490084 25.828714
-10.736323 -0.70509881 25.83605
40.657387 -0.76628155 25.694153
-32.539032 -0.040029138 25.864258
-31.363022 -0.078465313 25.828583
-30.52676 -0.29065531 25.755741
-30.38483 -0.11659607 25.943378
-15.275331 -0.1284427 25.938253
-15.090393 -0.084225744 25.779417
-14.7049 -0.21107674 25.852806
-10.291347 -0.0074368715 25.842037
-3.7772825 -0.11761034 25.990034
3.129673 -0.15377687 25.886181
3.3711329 -0.18770495 25.952908
4.4378567 -0.09045817 25.939245
-30.152664 0.15500587 25.739452
-20.186316 0.18913037 25.767206
-19.899864 0.39891732 25.7038
-17.342236 0.32766604 25.82443
-17.047955 0.14273852 25.960871
-14.930984 0.17233421 25.783546
-12.473967 0.21868443 25.810471
-3.5674524 0.023840696 25.899403
2.9476633 0.20118064 25.660372
3.3152885 0.25289929 25.637163
3.7921586 0.16205803 25.749729
4.7516775 0.24961236 25.968105
-38.59481 0.55658805 25.741211
-31.429325 0.4374705 25.638145
-30.705303 0.4462139 25.99094
-19.776289 0.65432531 25.861593
-17.004341 0.45648009 25.709826
-14.973638 0.48791972 25.742874
-14.758589 0.53743488 25.835957
-10.535562 0.55584073 25.800888
-10.122336 0.63569152 25.907217
-6.0959086 0.52620518 25.80599
-5.6360579 0.53880882 25.787004
-5.4842672 0.57013237 25.77972
-3.3986416 0.47399867 25.755238
1.8614649 0.79387712 25.89502
2.9564006 0.54639691 25.842371
-28.890854 0.90883422 25.688965
-19.716888 0.90328103 25.735573
-18.353949 1.1894314 25.959044
-17.517544 1.0479051 25.733358
-13.564453 1.0367129 25.665024
-13.140608 1.1125842 25.88073
-11.347157 1.0177777 25.628384
1.5559042 1.16458 25.737427
1.8461372 1.0060649 25.787872
2.0870335 1.0551145 25.832525
2.9911222 0.88594592 25.62204
4.0248775 1.0091662 25.850117
4.7327023 1.0485015 25.790884
4.9891691 1.1260376 25.661619
-34.841373 1.3465763 25.704491
-27.378326 1.3702612 25.971874
-19.519142 1.3111037 25.758472
-18.593748 1.4290307 25.683865
-18.337934 1.4342446 25.833471
-17.642508 1.5228643 25.625692
-17.410736 1.2505971 25.740738
-13.794012 1.2625905 25.63023
-8.0505085 1.4103422 25.962023
3.1230502 1.3141134 25.660542
4.2899075 1.5866292 25.927206
4.6667323 1.3910719 25.76605
5.0520101 1.3288314 25.632141
5.8197098 1.2868834 25.629139
-18.642576 1.6660951 25.708761
-13.31093 1.6796992 25.602715
-10.89734 1.6213864 25.796022
-10.204963 1.8854073 25.799629
-7.5874262 1.6645155 25.835957
-6.1502671 1.9427648 25.816593
4.6948481 1.6752231 25.793453
5.1769328 1.8651463 25.81172
5.2023153 1.6302465 25.72596
-7.5037441 2.0692604 25.913578
-7.0143328 2.3773351 25.737188
-6.224175 2.0994213 25.737959
-5.781209 2.2489183 25.68092
4.129427 2.3431468 25.71895
4.7550797 2.1212373 25.696253
6.4940381 2.2083309 25.812237
-30.763647 2.7660425 25.792307
-20.095219 2.6527543 25.665554
-19.490063 2.6269126 25.813843
-16.854607 2.7130158 25.989759
-9.8281126 2.588938 25.865183
-7.8577566 2.6415081 25.667938
-7.211339 2.5704203 25.712994
-6.462986 2.6089723 25.697723
-6.1698046 2.5693433 25.664942
-5.9021511 2.486598 25.758078
-0.44097328 2.7823405 25.815205
4.2831779 2.6806593 25.754345
4.4988441 2.6543746 25.729969
5.9582725 2.5234787 25.731176
6.3315916 2.5463002 25.729145
-11.191981 2.9457819 25.878223
-9.8060303 3.0074244 25.699707
-7.3107319 2.9656422 25.954605
-6.1222792 3.0768797 25.973228
-5.8025727 3.0281029 25.851973
-5.547277 3.0962434 25.652281
-4.0609465 2.9991906 25.651747
-3.4324989 2.9966886 25.656918
-2.9815035 2.9918656 25.821289
-2.7046511 3.0405328 25.73731
-2.0188074 3.1688452 25.845005
-1.8800611 3.0596247 25.827717
-0.94531703 2.929672 25.817101
-0.49116516 2.867959 25.728735
3.8332443 3.0039985 25.745569
-9.7989359 3.4169962 25.788605
-9.5451546 3.42346 25.829239
-7.2469468 3.2449875 25.719082
-5.3043365 3.2850502 25.867744
-4.3032813 3.5249455 25.73324
-3.9117815 3.4771991 25.698164
-2.817982 3.3845189 25.801035
-2.5812366 3.4171944 25.930132
-1.7084696 3.4272571 25.96344
-1.3377221 3.2339585 25.688238
-0.9897539 3.2312915 25.836672
3.9456115 3.4466329 25.798706
6.2272015 3.5457726 25.900539
-18.121727 3.8857145 25.903187
-17.942013 3.6308055 25.73263
-17.306929 3.8633223 25.723997
-9.4798965 3.8427567 25.863369
-7.522418 3.7995169 25.860725
-5.4474263 3.6442554 25.66741
-4.2226391 3.8199267 25.734877
-3.5032263 3.7657833 25.649534
-2.5590897 3.7001595 25.734142
-1.3756771 3.7116253 25.83437
4.2517471 3.8872941 25.607492
4.65137 3.7993164 25.934029
5.2421331 3.8567047 25.772303
5.7467647 3.7962584 25.936825
6.250422 3.8513143 25.961246
-12.175724 4.3110075 25.917412
4.9348245 4.1155033 25.730947
5.2800879 4.0644932 25.878889
0.65156841 4.7667513 25.805653
4.1385441 4.7153912 25.785704
4.7183795 4.4318929 25.834251
5.7324142 4.6239581 25.764343
4.6948137 4.9258184 25.758945
5.0494332 5.063931 25.7703
5.2299767 5.1778622 25.668364
5.7013216 4.9193931 25.68561
-18.530121 5.3101892 25.927143
-18.365229 5.2634192 25.957111
-0.24364045 5.3399611 25.893488
0.34945846 5.2439904 25.762224
2.7831213 5.5176439 25.733538
4.5783148 5.5180912 25.747561
4.9195232 5.4759264 25.912548
6.1471343 5.2756376 25.9795
-18.715939 5.8903875 25.819229
-18.069817 5.7162204 25.958855
2.9064174 5.7157326 25.604118
3.3956389 5.703125 25.759048
3.6604042 5.9982452 25.746202
4.5782681 5.7835031 25.632477
5.0229678 5.7609296 25.79039
5.2271056 5.6812105 25.765652
-1.1259985 6.1410561 25.806511
0.094512939 6.3917327 25.86577
3.9249415 6.0151925 25.639219
5.2214565 6.0601788 25.908371
0.99574763 6.7995501 25.666101
0.37262428 7.1149516 25.678633
0.7528677 6.9649568 25.705692
1.1118603 7.299984 25.726961
1.3510605 7.3707695 25.889889
1.4116765 7.6202497 25.865274
25.412273 -5.2795496 26.398777
25.758427 -5.4630613 26.15674
25.855 -5.1680617 26.216465
26.063698 -4.8086877 26.255999
19.077372 -4.4875441 26.2565
19.40629 -4.4483705 26.065052
19.845354 -4.5956526 26.145498
20.213448 -4.5427604 26.21287
23.97126 -4.4618664 26.11562
25.813297 -4.7057629 26.29813
26.554245 -4.7764835 26.012434
-6.4389238 -4.0870905 26.334972
-5.9629817 -4.0708475 26.105806
-4.7285705 -4.1311531 26.051785
0.98377323 -4.0589523 26.175941
4.1617699 -4.2929149 26.190435
4.6440096 -4.1871009 26.011812
4.8877869 -4.0135236 26.366617
18.605824 -4.3253055 26.059511
19.292328 -4.3148346 26.020342
20.132191 -4.2994328 26.069876
24.079124 -4.1610336 26.149359
-35.929138 -3.8895466 26.118233
-32.761189 -3.7800016 26.016468
-7.2964587 -3.9938705 26.20602
1.0213623 -3.9565327 26.00803
1.2847141 -3.7681277 26.010862
2.1756268 -3.7786965 26.171326
4.3378649 -3.6949906 26.240608
4.5923176 -3.794553 26.248188
18.641634 -3.6384397 26.194193
19.304096 -3.6046672 26.36764
19.626562 -3.6409674 26.300314
20.197302 -3.661231 26.286678
20.471449 -3.6183898 26.056561
24.475628 -3.7910008 26.021996
53.701462 -3.7628019 26.094334
55.797676 -3.8924541 26.099632
0.47894573 -3.5241857 26.025066
1.0873609 -3.2950473 26.026073
2.2437735 -3.3128209 26.213634
2.5221262 -3.2708654 26.271969
19.164391 -3.4699397 26.344683
19.355137 -3.3917766 26.188713
19.81959 -3.3427696 26.173763
20.093666 -3.408987 26.287037
20.520903 -3.390183 26.189716
1.9322711 -3.0110736 26.293892
2.1903472 -2.9656484 26.25528
2.5160818 -2.9223132 26.203489
18.5641 -2.8196428 26.345955
19.376575 -2.9594896 26.343054
19.891241 -2.8810008 26.245768
20.095579 -2.826225 26.303814
2.0885601 -2.6663368 26.263479
2.5468342 -2.5585911 26.24744
18.716995 -2.6282034 26.376625
19.58672 -2.7324758 26.318283
19.813498 -2.6858661 26.188515
20.111128 -2.6762722 26.216217
39.063095 -2.5462027 26.281639
39.353481 -2.6076519 26.158892
40.386929 -2.7953773 26.055117
1.9579705 -2.2348032 26.292105
2.2056279 -2.2062716 26.217443
2.5391688 -2.1628311 26.248388
38.324913 -2.2344599 26.314358
38.538658 -2.0732884 26.301922
39.002045 -2.1621368 26.149395
39.271339 -2.2746115 26.140352
39.655724 -2.0902607 26.055706
1.9457674 -1.664932 26.199066
2.2104487 -1.8181977 26.190334
2.4971316 -1.8315508 26.163702
38.633205 -1.9440958 26.247293
38.981205 -1.8091034 26.163698
39.272911 -1.8780636 26.16309
-11.083127 -1.2296327 26.188736
1.8934318 -1.3577145 26.280319
2.2005155 -1.4282974 26.216494
2.5841503 -1.3998945 26.218922
2.8120794 -1.2897459 26.173622
38.767448 -1.5480596 26.231037
38.966198 -1.4450127 26.198221
39.426952 -1.3577514 26.039053
-29.868944 -0.92476344 26.360847
-11.191669 -1.1120853 26.090572
1.5694613 -0.96672356 26.203373
1.8115689 -0.98348063 26.260252
2.1825652 -0.95476955 26.243324
2.5568886 -0.89685583 26.115973
6.016943 -1.0732205 26.326826
38.76099 -1.0899485 26.365099
39.400085 -1.0092239 26.175737
39.601883 -1.0326697 26.060501
47.496719 -1.1191353 26.289549
-3.7941301 -0.48148784 26.146591
1.5598087 -0.79455614 26.100798
1.9069663 -0.62106442 26.245501
2.1930211 -0.59265894 26.186749
2.5627964 -0.58975893 26.17617
3.1600637 -0.73832667 26.11257
3.2010565 -0.59793425 26.264874
39.56115 -0.61582148 26.085499
39.695084 -0.77963966 26.085247
-19.791168 -0.0024956316 26.328426
-3.6972947 -0.17443758 26.062513
-3.4095156 -0.16758405 26.077999
1.4706947 -0.2744433 26.325632
1.779712 -0.23778836 26.186537
2.1613846 -0.31132442 26.170021
2.636883 -0.24578133 26.212063
3.5015688 -0.063416839 26.257832
4.3507271 -0.017748505 26.13405
4.6359496 -0.16844155 26.112841
4.9489651 -0.16503192 26.276503
-32.160259 0.0614415 26.261173
-29.213951 0.19837278 26.049566
-19.564831 0.35280025 26.322437
-12.117435 0.19933203 26.050097
-9.9139347 0.20712048 26.19014
1.5756778 0.39308351 26.186386
1.8729687 0.23467425 26.178335
2.1326339 0.18297072 26.166254
2.7650785 0.32464647 26.236891
2.9811532 0.13213658 26.267916
4.2644005 0.29711446 26.220364
4.5910468 0.14642538 26.275562
4.9621363 0.17761421 26.233
-32.114201 0.55493307 26.256283
-19.894138 0.53760731 26.117203
-19.518629 0.71686471 26.293148
-16.678366 0.67530435 26.096489
-10.190461 0.59344822 26.126165
-5.8766899 0.7483654 26.021057
1.8470556 0.57969362 26.128365
2.0115883 0.60044849 26.122925
3.0031424 0.57270634 26.144714
4.8503428 0.42716673 26.217569
-19.686819 0.82394552 26.14674
-17.870926 1.1921002 26.178432
-13.010406 1.1461214 26.142752
-11.33733 0.81809449 26.195427
-11.037167 1.041638 26.174337
-9.8298321 0.91099465 26.167017
-6.1767025 1.1226079 26.228638
1.904647 0.95332873 26.243811
2.2477582 0.95704901 26.391848
3.9923201 1.1224904 26.382832
4.2046585 0.97944498 26.288225
4.5127544 0.98706454 26.211636
-29.396936 1.3907944 26.14233
-29.148958 1.2409482 26.338173
-28.605207 1.4591806 26.094751
-19.494276 1.2576473 26.023993
-18.628269 1.3461291 26.374931
-17.082767 1.4774765 26.385435
-7.9858665 1.4341257 26.024492
-6.5982084 1.5185113 26.307251
4.5283484 1.3145467 26.189106
4.8103657 1.4170487 26.044952
-18.341806 1.6799124 26.246761
-16.994602 1.6390899 26.21545
-10.507153 1.7784488 26.138983
-10.197413 1.9355006 26.003201
-8.1475182 1.6146696 26.036236
-7.737359 1.7346449 26.239094
-6.6783361 1.8680357 26.383585
-6.1840801 1.8115529 26.197952
4.3486543 1.8869429 26.068741
-19.194077 2.2700675 26.161453
-8.0711613 2.1001756 26.247335
-7.0009532 2.3248134 26.386173
-1.4369869 2.0736196 26.316679
-0.97425622 2.2067425 26.300385
-0.68360996 2.1350269 26.287548
-0.27952805 2.205339 26.319847
4.1814795 2.3053312 26.359859
4.6335926 2.1193972 26.075994
6.6343498 2.1215937 26.37921
6.9951363 2.2840695 26.368031
7.2122951 2.3982093 26.38147
-19.760731 2.4432168 26.22802
-7.3712578 2.5451736 26.138111
-6.4736528 2.7986467 26.267868
-6.1810246 2.7700286 26.02293
-1.4347769 2.5451601 26.086016
-1.1353558 2.5357594 26.327969
-0.56373823 2.6098983 26.309013
-0.097418666 2.4751725 26.262894
3.5680304 2.647558 26.114162
3.8010621 2.7213624 26.185757
4.5632858 2.721396 26.059418
6.5548334 2.5064013 26.381048
-19.067425 2.8610013 26.144379
-6.4694362 3.0518193 26.215292
-5.7545919 3.0982985 26.137716
-2.8876557 3.0599103 26.217493
-2.5415144 3.1239042 26.105577
-2.2989392 2.9669013 26.037945
-1.9087029 3.1806514 26.184113
-1.4081358 3.0447855 26.110327
-1.1002793 2.9495096 26.10025
-0.66558415 2.8574023 26.292213
-0.17702079 2.8638508 26.36928
3.6556182 2.9202912 26.095501
-18.484276 3.419873 26.13349
-17.882275 3.4951105 26.266045
-8.2653999 3.3126194 26.345263
-7.2294874 3.4827738 26.188068
-7.060576 3.4542096 26.279932
-5.1839609 3.3122516 26.27013
-3.1393471 3.2249804 26.048748
-2.584816 3.3051014 26.068661
-2.1139669 3.4443591 26.241739
-1.7219594 3.3423271 26.218161
-1.338106 3.2226052 26.159302
-0.97759873 3.2807941 26.088295
-0.78232181 3.2137971 26.092978
-0.34618139 3.2721276 26.375443
1.5560703 3.2717013 26.166134
1.6984102 3.5834551 26.1717
4.1083384 3.5074174 26.367052
6.1229219 3.2364876 26.282234
6.4750605 3.5475934 26.048218
-29.17914 3.7791791 26.228205
-17.40274 3.8108585 26.359497
-8.2161646 3.7081406 26.146347
-6.8924837 3.7085056 26.296967
-0.65707207 3.9498203 26.273277
1.5293379 3.8813221 26.220808
1.6200917 3.7577469 26.191193
4.1905556 3.891355 26.105326
5.0291071 3.8197896 26.294329
5.3315635 3.7847371 26.221704
5.793571 3.7899427 26.149122
6.2079134 3.8223057 26.137964
6.5012579 3.8283844 26.050728
-32.298267 4.2952332 26.206764
-18.05426 4.0469027 26.234367
-12.201142 4.3477368 26.056206
-2.8790772 4.1166735 26.139713
1.1854477 4.1950707 26.086451
6.2495146 4.0459394 26.126442
-18.713505 4.7860932 26.376143
-17.705135 4.7918453 26.192051
1.6457467 4.4335017 26.093628
5.0464802 4.5731874 26.390537
5.3084326 4.586297 26.314051
-19.067678 4.9054718 26.046949
-18.365875 4.8359985 26.308453
-0.85938793 5.1060772 26.233166
-0.029817104 4.89011 26.039658
4.0583849 5.0327134 26.294172
4.6638956 5.1770573 26.207102
4.8194017 5.1930594 26.251335
5.5976582 5.1969008 26.12924
5.8517928 5.0799518 26.282185
6.1639676 5.0687652 26.286707
-18.207722 5.353014 26.178766
-17.931904 5.4562755 26.220392
-1.3466058 5.2715435 26.220837
2.5351028 5.5524259 26.051464
2.8292618 5.3009634 26.260986
5.0192304 5.3601122 26.332146
5.5143795 5.4770846 26.155548
5.71242 5.3469601 26.216644
-18.704218 5.8213787 26.392258
-0.63194942 5.932055 26.200422
0.54125988 5.7616005 26.203421
1.1559916 5.9498014 26.07003
2.5899239 5.7532134 26.277111
3.6882753 5.6635852 26.363335
4.3438501 5.6458306 26.220133
4.9363585 5.6884775 26.22213
1.0823679 6.214839 26.008621
1.3076982 6.1229196 26.252542
5.1070976 6.0125179 26.053564
3.0118837 6.5857201 26.183697
3.3760817 6.7919745 26.131598
-31.266006 6.9827332 26.207895
1.318964 7.1004295 26.069893
2.5342255 6.8898678 26.189383
3.1756344 6.931468 26.304043
3.2023649 6.8462119 26.196945
24.662857 -5.2375641 26.756378
25.022514 -5.3064232 26.604576
18.887238 -5.1669316 26.798918
24.844824 -5.0305505 26.675814
25.505644 -5.1327887 26.598854
36.015644 -5.0311832 26.746117
19.125055 -4.450922 26.463047
19.355728 -4.6081891 26.549189
24.945339 -4.7561278 26.722301
25.345015 -4.7327633 26.5233
36.26717 -4.599421 26.683294
36.478634 -4.5031981 26.756607
-31.978882 -4.0112143 26.412506
-11.226999 -4.0226831 26.709951
-9.9577684 -4.0170202 26.532833
-7.5032501 -4.0812759 26.609417
-6.998826 -4.0722218 26.455839
-6.3377719 -4.1498246 26.593079
4.2179556 -4.0217385 26.434898
4.5206738 -4.2990432 26.46933
18.416264 -4.3605266 26.764042
19.464291 -4.3887711 26.757824
19.670479 -4.3772526 26.533993
-12.441842 -3.8240416 26.406776
-12.002339 -3.8633118 26.766289
-11.785243 -3.9486206 26.69507
-11.365426 -3.9684877 26.707592
4.6632071 -3.8014667 26.470518
4.9366455 -3.855509 26.653738
18.078491 -3.6577673 26.534548
18.436943 -3.946578 26.473743
19.299267 -3.6444857 26.601273
19.673525 -3.6306498 26.53377
23.917751 -3.8759661 26.660885
24.436504 -3.9826956 26.474243
-12.059105 -3.498168 26.798441
-11.962972 -3.5050573 26.767916
17.945709 -3.275079 26.652992
18.508986 -3.2663527 26.710705
19.159079 -3.4692395 26.485331
-36.328804 -2.8173366 26.442974
-12.07214 -3.1868663 26.767647
17.676693 -2.9969335 26.7666
18.169926 -2.9245558 26.583889
18.589785 -2.8910611 26.566854
19.027983 -3.0350122 26.655727
19.361685 -2.830745 26.516733
19.742086 -2.9676733 26.665693
20.22304 -2.9785697 26.638254
18.231295 -2.7436442 26.655422
18.702349 -2.7759759 26.433296
19.414692 -2.666985 26.60652
19.717854 -2.5616198 26.45631
20.344608 -2.7747512 26.437206
37.665234 -2.4813249 26.722679
38.239918 -2.5804975 26.665373
38.442696 -2.5634291 26.553339
38.803959 -2.6728895 26.46854
19.799519 -2.3505056 26.462006
37.559425 -2.0803342 26.68413
37.802139 -2.031029 26.65284
38.234459 -2.184947 26.56798
38.41172 -2.1857557 26.460253
6.6398492 -1.7550032 26.718414
37.778305 -1.8513197 26.738653
38.229713 -1.861051 26.500017
38.42556 -1.6694973 26.452179
-11.872355 -1.306497 26.695705
3.0295591 -1.3911052 26.703465
5.6516337 -1.346571 26.746071
6.3515406 -1.475081 26.681358
6.5467095 -1.3813341 26.592442
6.8222461 -1.3551846 26.635294
37.920311 -1.531495 26.631416
38.173435 -1.43115 26.574541
38.52433 -1.3739901 26.534006
-29.451887 -1.0188123 26.77458
-4.2605834 -1.0579097 26.779982
6.2073021 -0.98470414 26.622463
6.5181293 -0.96977222 26.727539
6.9408813 -0.90633142 26.747816
37.994282 -1.1459355 26.701662
38.601612 -0.81117886 26.537283
-30.197018 -0.77197087 26.691628
-29.554749 -0.64602125 26.748327
-4.635767 -0.61229467 26.793091
-4.3759971 -0.45562887 26.772541
-3.9439516 -0.50580412 26.646944
3.6105547 -0.44382471 26.634932
4.2692404 -0.40313554 26.629349
4.7712126 -0.47013032 26.676445
6.6009908 -0.6337567 26.569345
38.18483 -0.67729437 26.739498
38.839767 -0.71975148 26.451403
47.177002 -0.45789945 26.580816
-30.145298 -0.39821821 26.696136
-29.636501 -0.29455507 26.56777
-14.008797 -0.22130907 26.593487
-13.875997 -0.045472257 26.675119
-11.797676 -0.065565467 26.787411
-4.4684935 -0.10998636 26.767002
-4.3586292 -0.29467279 26.79632
-3.880537 -0.28643817 26.774296
1.167574 -0.12067395 26.651955
1.3791528 -0.2139795 26.469378
1.7299298 -0.21844622 26.51531
3.4750433 -0.15086882 26.552784
3.7627342 -0.16101143 26.736807
4.1912532 -0.15313381 26.561644
4.6015286 -0.20466512 26.658628
-31.806919 0.2694923 26.725222
-28.667614 0.27441266 26.788296
-19.47414 0.16604146 26.596342
-12.213758 0.20377755 26.428236
-11.877162 0.21304503 26.617598
-4.8609304 0.077735215 26.750967
-4.7352295 0.084891796 26.580212
1.9149117 0.041067898 26.40064
2.5720925 0.27292094 26.520658
3.5113029 0.23387086 26.593
3.9294538 0.23361905 26.566597
-35.451572 0.71485883 26.765804
-28.299519 0.67704922 26.471746
-19.366613 0.57673091 26.726063
-19.195465 0.47921607 26.651928
-18.663185 0.56961012 26.72613
-12.254438 0.4318462 26.492132
-4.9128141 0.5394209 26.692421
-4.7860055 0.7068941 26.613714
2.1220551 0.63867325 26.70026
2.5467327 0.51608765 26.656826
3.0170889 0.56036437 26.544081
3.4213669 0.61750472 26.540541
3.9718726 0.79122245 26.731592
4.0380096 0.77636015 26.575613
4.548502 0.63066065 26.460718
-31.808868 1.1506912 26.468346
-19.371552 0.97393107 26.478138
-18.294239 1.1136299 26.538704
-11.843791 1.1308879 26.700026
-10.956286 0.99053156 26.559591
1.8189049 1.0447971 26.543602
2.1667254 1.0301307 26.522387
3.1931834 1.0945301 26.543663
3.3854442 0.97514969 26.566088
3.6448739 0.96340609 26.667753
4.1726189 0.98221028 26.609947
-34.169106 1.5794593 26.448307
-18.227585 1.2785648 26.733154
-10.63777 1.2009926 26.695179
-6.5628672 1.4946594 26.465164
-6.313343 1.468972 26.568941
1.9291564 1.4173855 26.594223
2.145761 1.4211766 26.627533
3.3748784 1.3763357 26.616385
3.6737361 1.2647022 26.49341
-17.494646 1.7350237 26.443459
-8.0425911 1.8141271 26.45306
-7.9256744 1.6262591 26.44215
-7.3831215 1.8221632 26.413664
-6.3774457 1.6248145 26.677382
-2.9786081 1.9488883 26.556879
-0.46285343 1.9829634 26.672031
1.8543873 1.7823042 26.693304
2.1627998 1.8366988 26.703281
3.5112319 1.6164448 26.571344
-18.933968 2.2103081 26.792175
-12.414202 2.0573313 26.750029
-12.278674 2.1364779 26.711241
-7.5473518 2.0041239 26.501741
-6.6825714 2.0550611 26.612156
-2.7353098 2.171289 26.442682
-1.7186098 2.0653734 26.704714
-1.3603953 2.1167116 26.698181
-0.81693411 2.386446 26.502232
-0.58691198 2.2020662 26.579084
-0.28911811 2.2135923 26.598745
1.7868453 2.134455 26.673096
2.1663105 2.0471749 26.709562
5.9205885 2.0812023 26.479589
6.2928438 2.1185708 26.706762
6.9612551 2.2565885 26.672451
-21.073828 2.6399031 26.685486
-18.839241 2.5750401 26.603237
-13.393548 2.6693053 26.654787
-6.8452835 2.6621525 26.470551
-2.5690758 2.6527948 26.4624
-1.2518206 2.5713732 26.598997
-1.0382222 2.6334584 26.709778
-0.66153395 2.5330281 26.575834
-0.34371743 2.5821543 26.561794
0.38358021 2.5700679 26.471373
0.61603749 2.4894199 26.507683
0.9016301 2.4743485 26.488968
1.5243289 2.4285595 26.633455
1.8490986 2.5332475 26.572601
2.012701 2.4141061 26.648777
6.6471062 2.6462758 26.458118
6.824235 2.7615066 26.6413
-9.6296625 2.8203297 26.585463
-9.1706982 2.8773198 26.645803
-3.0890532 3.0955987 26.637712
-2.7389641 3.1384335 26.79011
-1.488296 2.8978972 26.584431
-0.80883789 3.1039915 26.561565
-0.19567406 3.0046906 26.569559
0.25171375 2.8201509 26.451391
1.2298179 2.8583672 26.574854
1.7637253 3.0071063 26.711929
6.2384596 2.9666083 26.633057
6.6486077 3.0119114 26.712046
7.1074023 2.803849 26.57863
-8.2905178 3.5664759 26.515772
-7.7430973 3.412919 26.538242
-7.5031776 3.4525228 26.685081
-7.1194868 3.3590083 26.467869
-6.7332463 3.3843062 26.4582
-5.975657 3.3838029 26.773689
-1.9556994 3.3352876 26.469002
-1.3850144 3.3279119 26.575485
1.5351315 3.4051495 26.757656
4.2293968 3.4148064 26.570887
5.8954878 3.5887735 26.509621
-20.252359 3.8076591 26.714828
-15.122891 3.6277649 26.689842
-10.950397 3.9217758 26.584328
-10.604768 3.9782176 26.628738
-7.8346806 3.8792541 26.447599
-7.4313059 3.8492734 26.657284
-6.9051309 3.7247889 26.438177
-6.6781363 3.7507267 26.46085
3.9184833 3.8195698 26.69574
5.3969016 3.7009997 26.592697
-20.070635 4.0079989 26.576239
-18.164116 4.3612008 26.453606
-17.110273 4.3200083 26.74119
-15.859292 4.2224774 26.680244
-9.3622913 4.3661489 26.642666
-7.8348556 4.2441888 26.412811
-7.3218403 4.19243 26.485085
-6.9441681 4.3317108 26.699808
2.3161173 4.1607099 26.733162
5.59834 4.1210456 26.616982
5.6258135 4.1339388 26.519928
6.1001263 4.019733 26.450951
-17.895691 4.8548369 26.744555
-15.940131 5.017107 26.647028
-15.577718 4.8681827 26.451458
-9.1750288 4.9647059 26.420424
-6.6818838 5.1451168 26.434559
-0.67134488 5.1690927 26.635687
4.6709328 5.1271482 26.650629
5.0817246 5.1028628 26.711975
5.3272977 5.1820002 26.638254
-17.452351 5.2014036 26.596958
-9.9976149 5.2705159 26.50902
5.399229 5.5010881 26.400925
-17.708967 5.7000418 26.418535
3.0716467 5.6699629 26.662222
3.6304822 5.8142767 26.702698
4.9626875 5.7662201 26.543056
5.3079367 5.7254305 26.644367
-15.341569 6.2633281 26.758024
0.75041437 6.238132 26.51054
1.4253521 6.1507049 26.522356
1.7886086 6.1281743 26.541273
1.8413471 6.6572933 26.689566
-13.048678 6.808476 26.701303
2.2818542 7.0523281 26.724009
3.021594 7.1266193 26.765827
2.365823 7.2242765 26.633593
23.918879 -5.5566597 27.042505
24.194786 -5.3997283 26.937157
24.486727 -5.3588209 26.816761
18.854097 -4.9031067 26.807407
23.346388 -5.1503429 27.178385
23.834759 -4.9008784 27.18462
24.331192 -4.9751425 26.934528
24.442041 -5.1467266 27.072922
25.002069 -5.1463113 26.870436
36.181808 -4.945374 26.951765
18.200743 -4.4622483 27.135889
18.604847 -4.4343958 27.14348
19.020271 -4.5371089 26.899332
24.075294 -4.7748008 27.164286
36.204899 -4.6699286 26.910498
36.442162 -4.4202623 26.861574
67.365875 -4.4073892 26.979595
-10.811273 -4.0041733 27.016249
-8.7821522 -4.04777 27.031311
-7.9887738 -4.1392388 27.057467
-5.7965202 -4.1960144 27.068707
-5.2934179 -4.1949329 27.126099
-4.0360389 -4.2157931 26.876997
0.10827732 -4.0032578 27.00782
4.6038837 -4.1391673 26.957844
4.9953098 -4.204227 26.971781
5.3132448 -4.1835027 27.040022
18.189238 -4.1934128 27.109184
19.101452 -4.1765041 26.88011
19.217388 -4.3931365 26.878643
36.173828 -4.3117714 26.983444
67.086464 -4.35744 26.980314
-12.040868 -3.8853962 26.824823
-11.802361 -3.7185159 26.86681
-11.45832 -3.8257523 26.926777
0.24334282 -3.6046484 27.185577
0.50381118 -3.786691 27.017231
4.6476378 -3.9670291 26.855738
5.0503936 -3.8540263 26.990107
5.3556361 -3.8431377 26.979593
17.832489 -3.7885857 26.820429
19.134993 -3.8216496 27.095739
20.450274 -3.7644463 26.850508
36.273384 -3.9550064 26.922127
58.054909 -3.7903473 27.014139
-12.139669 -3.4730439 26.833296
-11.761405 -3.3862138 26.955559
-11.490129 -3.2141328 27.080528
0.43995857 -3.4316893 27.100784
17.947687 -3.3996503 27.008642
18.183792 -3.4345131 27.123899
18.625778 -3.3967965 27.023067
19.096912 -3.4758105 27.098028
36.379356 -3.4830794 27.02523
56.015568 -3.4860325 26.954519
-12.145411 -3.19418 26.811443
-11.897074 -3.0377936 26.97085
17.861328 -2.9810307 26.973206
18.142332 -3.1538794 26.89567
19.086687 -2.8653817 26.907227
19.360188 -3.1007295 27.110241
36.294312 -3.0510387 27.067247
-12.082593 -2.5904195 26.945044
-11.846339 -2.5949171 27.052149
18.188362 -2.6705177 26.885275
18.915701 -2.5183113 27.001575
19.359997 -2.4993687 26.917353
19.92942 -2.5119727 27.15863
20.191147 -2.532392 26.950998
36.333904 -2.5803134 27.079472
36.539383 -2.42816 27.126278
37.122299 -2.6623106 27.178268
37.509518 -2.4474337 26.992641
37.689854 -2.765332 26.944464
-38.232651 -2.2421503 26.840206
-12.070387 -2.1521912 26.983604
-11.856906 -2.2722154 27.098627
6.2440891 -2.0387595 27.1803
6.5319648 -2.1050315 27.100204
19.03643 -2.2156842 27.012432
19.460197 -2.2945025 26.989065
19.716755 -2.1983166 26.959801
36.590279 -2.1700873 27.069067
37.033695 -2.1213837 27.040096
37.410503 -2.0976696 26.934402
37.60199 -2.3354616 26.845814
38.003777 -2.2986403 26.803766
-12.129 -1.7793806 27.076635
-11.832139 -1.7852706 27.109346
5.9521699 -1.6201293 26.811531
6.0493331 -1.6206262 26.946625
6.617775 -1.7766544 26.941896
6.9542584 -1.7345493 26.983875
18.991047 -1.9811515 27.030704
19.291599 -1.8978118 27.090569
36.765846 -1.7524804 27.177528
37.107258 -1.9225959 27.085423
37.356548 -1.8399706 26.887348
37.613174 -1.9158419 26.919628
-38.155029 -1.5776381 27.110357
-12.168818 -1.5379245 27.115681
-11.701216 -1.4583323 26.961382
-11.472145 -1.4584602 27.014069
-3.4878054 -1.3504097 26.814579
-3.1492167 -1.3718798 27.157711
5.1651211 -1.2148609 26.989019
5.9212494 -1.4391909 27.014713
6.1487899 -1.4514613 26.923439
6.6664634 -1.4753027 27.072702
6.9647064 -1.3781298 26.927038
7.3249025 -1.4490293 27.073589
36.841427 -1.4198581 27.167259
37.455196 -1.4629234 26.876711
-11.714806 -1.0041246 26.894857
-11.492512 -1.0227213 26.989544
-5.3123589 -0.97426915 26.846972
-4.9031792 -0.83448571 27.057613
-4.167172 -0.98050094 27.03734
5.2964926 -0.95465672 27.077286
6.0770445 -0.96239805 27.072632
6.6087914 -0.99142599 26.942278
6.8231611 -0.98619229 26.852333
37.921219 -0.83149123 26.85854
48.655785 -0.88760555 27.080215
-31.576458 -0.5361774 27.024309
-31.018715 -0.67407274 27.180897
-11.691912 -0.46784103 27.001591
-11.487076 -0.60607022 26.984266
-4.9190054 -0.5439809 27.041021
-4.0617237 -0.75561988 26.954945
-3.853673 -0.6514231 27.100475
4.2482443 -0.57035679 26.875614
4.6628752 -0.56901056 26.815115
4.9022436 -0.42856729 27.086636
5.2029514 -0.47002757 27.178024
5.9125581 -0.75910276 27.138474
6.6699176 -0.66523349 27.130756
36.816978 -0.54362237 27.070309
47.520622 -0.77891785 26.842817
-12.130157 -0.0055689812 27.065088
-11.734543 -0.21898048 27.111668
-4.9301472 -0.18494081 27.039577
-4.751091 -0.048976909 27.066677
-4.2952724 -0.25395104 26.968903
-2.8960471 -0.18885845 27.188171
0.75226879 -0.02917853 26.8983
3.6279361 -0.13370016 26.834057
4.766922 -0.2186397 26.962364
-13.221325 0.19878063 26.933121
-13.172087 0.21346462 27.114292
-12.053661 0.066147126 27.152267
-11.807681 0.29569063 27.06193
-11.468442 0.19629958 27.052837
-11.140326 0.21230322 27.043388
-10.521982 0.28453654 26.91259
-4.0887756 0.12909287 26.870188
-3.640142 0.34860146 26.904339
0.66347569 0.23126487 26.984903
0.95741647 0.1299722 26.925009
2.199199 0.25245377 26.884867
2.669827 0.0055367649 26.899193
2.9284868 0.24270722 27.107649
-32.171757 0.73464388 27.077232
-30.90111 0.47319731 26.839075
-30.60327 0.43851393 26.812191
-13.691581 0.62748581 27.021521
-13.189465 0.47552669 27.054323
-12.642809 0.63774586 27.032852
-12.190564 0.44952738 27.169542
-11.702473 0.48418617 26.88587
-11.554529 0.64769232 26.999861
-11.179354 0.50147331 26.961269
-3.6477354 0.64525652 26.878717
0.29113382 0.62211168 27.031406
0.58652306 0.46632084 26.956491
1.8804348 0.53182626 27.043018
2.0357583 0.51666796 26.96023
2.4272084 0.79256213 27.021801
3.9156489 0.73618197 26.957478
4.0770378 0.71445012 27.157314
-19.865173 0.81373978 26.889069
-19.209932 0.85823888 26.865364
-18.529163 0.80681223 26.853333
-17.539354 1.1876974 26.806522
-13.546988 0.80665123 26.840601
-12.080698 1.1086211 26.975224
-10.534938 1.1561775 26.959023
1.5232761 0.92144483 26.869635
1.9516983 0.906528 27.0602
2.0797939 0.80428398 26.891073
2.5307581 0.9650259 27.111889
2.8748379 1.181982 27.023348
3.8071222 0.98821253 26.868053
4.0204134 0.84409535 26.957729
-29.977598 1.3048317 27.112667
-10.935849 1.2801536 27.163809
-0.38548422 1.5387911 27.136927
2.0814123 1.2307457 27.109491
5.819345 1.4498386 27.031275
-12.250308 1.9823989 26.900925
-6.5156927 1.8021929 26.957989
-1.1322188 1.6420542 27.184101
-0.57105958 1.8432238 27.036896
-0.24274243 1.7678341 27.091646
1.9074712 1.6279995 26.810764
3.4816365 1.6782082 26.960239
3.7340493 1.9140234 27.133953
4.1180582 1.8859164 27.180946
5.399375 1.9086783 27.124506
5.7691517 1.8623006 27.152719
7.0645819 1.9843634 27.198336
-21.094711 2.0212431 26.930246
-17.133905 2.2484114 26.860971
-6.9535894 2.248898 26.838575
-6.5157833 2.2659531 27.002922
-6.3858027 2.1525126 27.035543
-2.8935041 2.1922283 27.088467
-2.7485628 2.3830659 26.832054
-2.3536401 2.209537 26.817844
-1.385002 2.1022444 27.082716
-1.0387478 2.2773819 26.893776
-0.70163667 2.0879774 26.896297
3.8537514 2.0576298 27.070419
4.2470984 2.2225935 27.159084
5.9953737 2.2493331 27.020496
6.1718302 2.1182373 27.005241
6.6098194 2.1398966 27.044487
6.8617001 2.2001138 26.915659
-29.154953 2.4479091 26.842873
-28.576782 2.6693549 26.986698
-18.235626 2.6585369 27.110441
-17.336775 2.6391034 26.999947
-12.788104 2.7192101 26.830387
-6.6942911 2.4091578 26.840513
-0.86039114 2.5899177 27.049793
-0.7444908 2.606441 26.873646
4.443018 2.6126165 26.922564
7.0316963 2.7381806 27.006832
-22.625328 3.1448269 26.995075
-16.826923 3.0537026 26.86775
-9.4811087 2.8738656 26.88393
-5.8653345 3.0227067 27.039339
-1.4587834 2.8602853 27.191336
-1.085858 2.9622388 26.874809
-0.63000149 2.8653448 26.99785
-0.39933923 2.9499631 26.815203
4.1296558 2.8451216 26.944965
4.5149102 3.1168923 26.9394
5.9097481 3.0913291 26.829613
6.2026896 3.0148647 26.920206
6.7365212 3.0303843 26.830393
-16.767204 3.3594375 27.113548
-9.6222134 3.530973 27.188547
-9.4850264 3.5304768 27.137838
-7.537921 3.4127274 26.841745
-5.6115389 3.3000433 26.968941
2.3812785 3.5612087 26.815964
3.9561923 3.4317138 27.175735
4.2410393 3.5549629 26.934212
-20.345421 3.9281495 27.126413
-17.753143 3.8890491 27.159882
-16.684738 3.6766725 26.883511
-12.903602 3.9863684 27.02598
-10.528563 3.8268828 26.923128
-10.065994 3.7885022 26.938213
-8.706315 3.6803627 26.984457
-8.2825928 3.6181927 26.918745
-7.8568459 3.6194019 26.936153
1.5334177 3.7992616 26.913317
-15.726399 4.3310742 27.045879
-10.588198 4.0671954 26.891996
-9.0074282 4.0890307 27.182339
0.98195851 4.1052847 27.048023
2.4482584 4.0309138 26.803589
5.0155392 4.3642635 27.092499
-16.877943 4.5858579 26.920732
-13.712936 4.5820436 26.847797
-7.1299624 4.4102321 26.888586
5.4315939 4.5290594 27.05624
5.9275875 4.5739732 26.819374
-20.278812 4.8069673 26.869646
-18.473471 4.8621936 26.851847
-17.404264 4.9749293 26.878721
-9.1088247 4.8599153 27.0844
-17.648672 5.373385 27.17169
-16.099161 5.2077999 27.193352
5.2687817 5.327415 26.881483
5.6659584 5.4640803 27.097467
1.6453648 5.7689061 27.16526
5.8626347 5.8607945 27.130138
-18.871168 6.1433277 26.928379
1.0938373 6.1160355 27.09041
1.4317694 6.3253393 26.856415
1.8903266 6.2701521 26.971893
3.6019907 6.0351801 27.14356
5.4347019 6.0728545 27.044716
1.0717525 6.4303713 27.005636
1.922348 7.0961461 26.871298
2.491142 7.1666932 27.043694
3.152005 7.1668434 27.081619
2.6789169 7.5271287 27.053307
23.013493 -5.6093025 27.494686
74.680145 -5.6492834 27.570326
23.120155 -5.3535862 27.45797
23.412407 -5.4831977 27.280563
23.049978 -4.9754806 27.487164
23.369215 -4.927588 27.428493
23.822361 -5.0161977 27.361607
24.043119 -5.0181623 27.450933
24.990204 -5.0844998 27.474569
36.391708 -5.0398436 27.565107
0.74359304 -4.4940443 27.400921
17.539371 -4.4004264 27.209013
17.763975 -4.4860568 27.422495
18.165892 -4.5476165 27.351086
18.612251 -4.5628805 27.362534
23.613817 -4.7906671 27.403437
36.33503 -4.5517521 27.505569
-32.33009 -4.0956235 27.558746
-10.433116 -4.0706892 27.54199
-9.0527821 -4.1591835 27.449762
-8.5418911 -4.1666737 27.357151
-5.2681475 -4.3002281 27.485767
-5.0072641 -4.2504606 27.587097
0.95313519 -4.3858161 27.483273
5.0278482 -4.0334868 27.277674
5.5126305 -4.0464149 27.404541
17.784739 -4.2920303 27.454336
18.480022 -4.3766942 27.472883
19.628305 -4.0943556 27.231956
36.220154 -4.3201499 27.586256
-22.703365 -3.9861994 27.330841
0.18564105 -3.8167412 27.277512
0.9158324 -3.980294 27.3248
5.3551064 -3.903826 27.378643
18.63155 -3.7108097 27.51598
57.260292 -3.9750984 27.332783
18.834076 -3.3247466 27.267799
19.599201 -3.4870205 27.56543
19.879528 -3.3573475 27.440928
20.079323 -3.3575613 27.351059
-37.922562 -2.9899099 27.470001
-36.855465 -2.9368482 27.311598
19.110558 -2.8686223 27.422949
19.59108 -2.8475618 27.263611
20.17103 -3.1463366 27.324379
37.072353 -2.8422348 27.22731
-11.593237 -2.4033775 27.294193
18.174374 -2.4379592 27.461279
18.532869 -2.4946389 27.371582
19.024639 -2.6768081 27.296143
19.242008 -2.5667825 27.310369
19.893932 -2.5051107 27.505449
36.251335 -2.4955523 27.362009
36.956406 -2.4912016 27.217623
-11.684268 -2.1938052 27.250772
6.3466129 -2.2950609 27.252159
18.633553 -2.154783 27.284847
18.973715 -2.0180731 27.294922
19.67219 -2.2022445 27.226467
35.734676 -2.3102226 27.525103
36.113106 -2.0904379 27.37384
36.429516 -2.0621567 27.293461
37.044464 -2.3465245 27.338806
-11.72476 -1.720557 27.283916
-11.471947 -1.6848687 27.349785
4.802711 -1.9030432 27.541824
6.1993222 -1.7510296 27.306887
6.6938848 -1.7413647 27.220203
6.9352016 -1.694919 27.21438
7.3947635 -1.7567513 27.272114
18.734547 -1.8108475 27.212807
19.157694 -1.9589858 27.258078
19.253845 -1.937399 27.259974
35.812332 -1.7874476 27.566029
36.200798 -1.7998308 27.436733
36.514042 -1.7919351 27.406733
36.815495 -1.9299027 27.237652
-38.010597 -1.5183498 27.357117
-12.041368 -1.2877029 27.25461
-11.793545 -1.3915458 27.378227
-11.348927 -1.4486513 27.518953
5.912406 -1.3063902 27.348106
6.6937275 -1.3313074 27.427023
7.0517883 -1.5350728 27.20821
7.3269892 -1.4794081 27.250858
36.217148 -1.4941525 27.429159
36.706974 -1.5586162 27.266109
36.840317 -1.4401205 27.215715
-38.031525 -1.0567242 27.483795
-12.411858 -0.90185809 27.221552
-12.237267 -1.0255257 27.290049
-11.843987 -0.94582784 27.334002
-4.184011 -1.1255022 27.425201
-3.2638087 -0.93871146 27.229591
-2.9862924 -0.89613551 27.4042
-2.5579247 -1.0351145 27.531952
5.1242762 -0.94801807 27.393887
5.4280672 -0.97414219 27.354681
5.7725348 -0.9014433 27.276093
-30.991564 -0.56955814 27.397507
-12.202788 -0.60774142 27.45521
-11.778367 -0.58474046 27.353399
-11.517323 -0.49028414 27.24403
-11.079119 -0.43079904 27.544231
-3.7083178 -0.44281512 27.289703
-2.9540648 -0.59395176 27.377171
-2.6960053 -0.46366578 27.480993
2.9453561 -0.68955827 27.326782
3.8360438 -0.51606679 27.396767
5.0373254 -0.53120464 27.38059
5.4618082 -0.5506146 27.54015
5.8157325 -0.65825808 27.383101
6.7919302 -0.47779787 27.429741
36.089985 -0.57699263 27.402035
-32.319962 -0.24004304 27.539457
-12.506416 -0.304867 27.31089
-12.280196 -0.27744547 27.449501
-11.751245 -0.17849873 27.308605
-11.427514 -0.22230966 27.446274
-10.531217 -0.10471588 27.405115
-5.4310846 -0.36533979 27.324614
-4.9160681 -0.38990644 27.394873
-4.7054009 -0.17241915 27.269516
-3.7432299 -0.28814423 27.321091
-3.0500953 -0.21175928 27.3925
7.4920678 -0.05497469 27.515402
7.7081337 -0.12491694 27.50061
-12.528853 0.15195361 27.427343
-11.794426 0.29567307 27.327436
-11.478306 0.18653591 27.343168
-10.369957 0.32469594 27.367107
1.9804295 0.39833817 27.259905
2.0433741 0.37792465 27.319088
2.8699265 0.39349693 27.579876
5.4033251 0.27851745 27.554893
5.928349 0.24245851 27.547619
7.4901953 0.17446887 27.467312
7.8090649 0.27203271 27.424335
8.1015511 0.18878543 27.502647
-30.351566 0.71453863 27.412615
-13.801409 0.42972744 27.254259
-13.373218 0.7579577 27.235672
-12.967595 0.4044531 27.327515
-12.470339 0.66877627 27.489441
-11.609835 0.48809233 27.390564
-11.563665 0.46602333 27.404358
-5.2243729 0.59644169 27.484194
-4.8458595 0.62801361 27.578333
-4.7413049 0.72939438 27.48049
-3.9725366 0.53059781 27.380615
-3.309557 0.43460131 27.496418
2.1475945 0.69525838 27.456785
2.7767124 0.75865215 27.353031
3.4109521 0.61188853 27.548754
4.2592101 0.71124631 27.334839
5.3759007 0.5601837 27.531967
5.9486094 0.4928844 27.588221
6.1023035 0.67239213 27.576315
7.4528136 0.65157509 27.458426
7.8236547 0.64652717 27.516071
8.0517683 0.51885843 27.459316
-31.659145 0.98962831 27.391928
-30.54229 1.01737 27.283966
-18.304314 0.85523951 27.59059
-17.815815 0.99268419 27.454866
-13.354056 1.1609792 27.24753
-11.673925 0.99384862 27.308851
-11.51252 1.1782238 27.435163
-11.019917 0.90038353 27.470097
-10.600962 0.87453234 27.266987
-0.96032131 1.1294314 27.524288
-0.70432186 1.0795208 27.466934
-0.092390493 1.0160075 27.435072
0.15434904 0.98442137 27.358023
1.5503912 1.1858256 27.53191
1.7693124 0.95647049 27.438427
2.2060995 0.89530301 27.345589
2.5586205 1.0258358 27.288858
2.9427023 0.95080274 27.431278
4.191792 1.1064646 27.543724
4.7335567 1.0683842 27.588936
6.0812907 0.90728134 27.595837
7.1294098 0.85585564 27.474773
7.601624 0.89908564 27.595703
-32.830742 1.5611078 27.405106
-18.939688 1.5516428 27.523746
-12.885917 1.202343 27.559734
-11.806686 1.3000494 27.356405
-11.481972 1.227037 27.576801
-10.72248 1.3175654 27.231911
-6.8800235 1.4917111 27.591379
-6.5020027 1.5205021 27.343697
-0.13564904 1.3518034 27.322617
0.13672762 1.3090767 27.372322
1.8890698 1.4178827 27.483936
2.258646 1.4519268 27.385586
2.5219791 1.4363153 27.463339
3.4054832 1.3169649 27.526205
4.7731724 1.3548218 27.593065
-29.485201 1.7130375 27.40225
-0.90017605 1.8047266 27.218666
-0.57527012 1.772349 27.275116
-0.25080922 1.8050643 27.375717
2.7401185 1.6281605 27.520046
3.6606989 1.8531382 27.311634
6.5417018 1.9028604 27.421013
-9.4018812 2.1396775 27.534103
-7.4159136 2.2763538 27.499105
-0.42693952 2.1628253 27.296076
1.5639915 2.0377467 27.514729
3.7623875 2.1082938 27.321548
4.2667871 2.2233908 27.403389
5.5282512 2.194999 27.3302
6.9415941 2.1450417 27.251436
-7.7361712 2.6908491 27.420519
-7.4494448 2.6994858 27.313259
-6.4026189 2.4954438 27.267881
-6.1665936 2.4859242 27.282129
-5.8291459 2.59515 27.417297
-1.1955729 2.7148104 27.578831
-0.47836518 2.6335661 27.303478
-0.30158621 2.5349817 27.360029
0.021219328 2.5895243 27.46413
6.3982916 2.7984238 27.445107
6.4798975 2.7789438 27.336468
-10.764249 3.0778043 27.403263
-9.3176584 3.08129 27.377567
-7.9968214 2.8124812 27.391651
-5.8118773 2.8108306 27.319313
-5.5109305 2.9609187 27.309195
-1.1033261 3.0475359 27.55304
6.1479073 2.8154433 27.42243
6.501719 2.9640489 27.390749
-7.3233175 3.5452402 27.214968
-6.7386494 3.4211893 27.356619
-5.5831013 3.4866621 27.304302
0.4283331 3.3804898 27.304235
3.8978014 3.3914089 27.328245
4.3224745 3.2133095 27.422426
6.5541582 3.2708158 27.227467
-19.999525 3.8903537 27.536114
-9.7941322 3.9506636 27.291336
-9.4293489 3.6596842 27.204971
-8.5653429 3.6829123 27.392994
-7.6740513 3.6279173 27.452608
-0.26369244 3.8059063 27.215408
5.1092224 3.6561706 27.501776
-19.842712 4.2130899 27.32206
-11.992243 4.3198361 27.428677
-9.7401571 4.017437 27.341831
-8.8529921 4.0480485 27.481733
0.46849614 4.1880341 27.328264
-22.252237 4.4477768 27.402903
-13.484602 4.5979247 27.315422
-9.4226665 4.5823107 27.323568
4.7623014 4.6895123 27.452717
5.1752119 4.4616694 27.531151
5.3196774 4.6397333 27.429693
-14.504444 4.9026976 27.205742
-11.697984 4.8626637 27.418821
5.9312391 5.1657128 27.285444
5.3445473 5.2231011 27.57229
5.8698559 5.5875945 27.293541
6.0687113 5.280529 27.393337
1.1050034 5.8819966 27.301386
1.6332054 5.9973578 27.490513
5.9673376 5.950511 27.2299
-17.152336 6.0158777 27.56793
-15.767959 6.0740013 27.241623
1.0522175 6.0244355 27.27364
1.6245747 6.1707149 27.366886
2.6733112 6.2254181 27.553513
3.0500965 6.3065882 27.503319
3.5185223 6.2089634 27.417448
3.8034945 6.1413131 27.545656
5.5093346 6.0098219 27.42481
5.8907719 6.3295145 27.539131
2.3860378 7.1717196 27.241871
3.0048723 7.111835 27.296238
3.1247311 7.4763131 27.300194
74.665565 -6.205945 27.606394
22.042469 -5.6095743 27.928066
22.34346 -5.4751081 27.797153
22.523056 -5.5544901 27.680237
21.898901 -5.1122994 27.916075
22.204224 -5.037674 27.967848
22.573595 -4.9688706 27.739021
22.90444 -5.1753769 27.773228
23.495693 -5.0081182 27.696564
23.800545 -4.8366847 27.751371
74.64595 -4.9827423 27.874517
-0.018003749 -4.4540133 27.919901
4.7848434 -4.4535127 27.61978
5.8062491 -4.6142678 27.681021
17.832064 -4.5886593 27.69231
18.062763 -4.408402 27.631847
22.651047 -4.7994719 27.835085
23.136494 -4.7958846 27.624037
35.946922 -4.5160227 27.634943
36.393806 -4.5047674 27.64344
-32.389275 -4.0587115 27.98629
-9.7244053 -4.2133512 27.921347
-5.3396444 -4.3725543 27.659065
-0.16291428 -4.1945739 27.852356
0.13786234 -4.2452936 27.773376
0.4566378 -4.1087723 27.881622
5.3611717 -4.13626 27.944597
5.7699242 -4.1433692 27.71965
17.668159 -4.3805733 27.696163
55.767159 -4.1310782 27.9715
57.189667 -4.1358004 27.767574
5.457922 -3.8610203 27.866135
5.6776562 -3.9575787 27.636208
18.448591 -3.7123449 27.780794
19.138304 -3.7360704 27.982969
52.671185 -3.8886504 27.613293
18.297989 -3.53268 27.825306
18.526527 -3.5272079 27.720722
18.988255 -3.5560193 27.74983
19.362381 -3.3988633 27.958824
18.96434 -2.8007703 27.918055
35.37249 -3.0393665 27.895554
35.952381 -2.9623587 27.632622
36.413048 -3.1278257 27.785938
42.52895 -3.182698 27.851013
4.3612108 -2.6155033 27.831245
4.75562 -2.6300724 27.9849
5.1758938 -2.4442213 27.923529
5.7830682 -2.4978864 27.974127
18.981279 -2.6889911 27.885525
19.373909 -2.4923441 27.755686
19.835463 -2.6611855 27.606403
35.317303 -2.6724052 27.972694
36.007542 -2.6388373 27.664398
-38.184006 -2.2673392 27.623035
-34.011345 -2.3721166 27.978987
4.8561192 -2.2212029 27.953165
5.44524 -2.3826797 27.956627
5.8783331 -2.3799534 27.982859
34.787487 -2.1805084 27.973614
34.972355 -2.2807589 27.887316
35.864548 -2.308136 27.812847
36.165943 -2.3356712 27.667244
3.3794134 -1.8138981 27.863796
4.579556 -1.832036 27.744196
4.9603586 -1.8458244 27.695084
5.2983203 -1.7575673 27.88311
6.3999619 -1.6621418 27.850521
34.976231 -1.7231041 27.93928
35.376751 -1.7445744 27.822397
35.78727 -1.7957591 27.701607
-37.949951 -1.4981296 27.629866
-11.065971 -1.3557054 27.759995
-10.659771 -1.275238 27.984692
-4.0364885 -1.4051551 27.711771
-3.9168091 -1.4321923 27.814451
35.137859 -1.3473233 27.989933
35.34623 -1.3414788 27.857445
-37.832813 -0.9344818 27.715736
-10.997082 -1.0205169 27.865158
-6.4280138 -0.81432599 27.793283
-6.2042999 -1.0025594 27.797138
-5.9185295 -1.0033927 27.864824
-4.5879402 -0.82690811 27.730307
